# .PCD v0.7 - Point Cloud Data file format
VERSION 0.7
FIELDS x y z
SIZE 4 4 4
TYPE F F F
COUNT 1 1 1
WIDTH 1480
HEIGHT 1
VIEWPOINT 0 0 0 1 0 0 0
POINTS 1480
DATA ascii
0.20644881 -0.53181142 2.020596
3.463639 0.25035983 -0.29278624
-1.0370001 1.119529 -0.80982381
7.4342742 -0.70559913 0.74802554
2.7492375 0.90145004 -0.85902357
-2.3410623 0.16753747 -0.20996383
-1.9069122 -0.013266725 -0.029159669
0.093348809 0.2847065 1.84
0.52305043 -1.153 -0.074305274
4.4730272 -0.7460717 0.7884981
-0.27107218 -1.153 0.98985195
-4.158536 0.49056533 -0.53299171
2.3221071 0.040521577 -0.082947925
1.0370001 -0.68022388 -1.050518
-2.3252769 -0.60621369 0.6486401
5.294004 0.74235076 -0.69992441
6.6366754 0.45226765 -0.4098413
6.0044808 -0.25230187 0.20987552
-3.4055219 -0.63678253 0.59435612
-1.0370001 -0.21060649 -0.52257586
3.0639129 -0.17060697 0.21303335
-2.3139048 0.13570246 -0.093276039
-7.326529 0.80484354 -0.84726995
2.5427833 0.78075248 -0.82317889
1.0370001 -0.55694896 0.96131986
-0.049040388 0.55161035 1.9503571
6.4207969 0.5447709 -0.50234449
-2.891382 -0.1557592 0.11333279
-3.0266147 -0.34455329 0.3869797
0.47302341 -1.153 -0.95537359
0.031230897 1.153 -1.3795848
-0.16149265 -0.3448993 -1.84
-0.92397767 -1.153 -1.2934675
6.3371434 -0.67877871 0.6363523
0.51624316 0.51859301 -1.84
-2.4378557 -0.69312906 0.6507026
0.16476792 0.8883034 -1.84
-4.7271957 -0.33981973 0.38224611
3.4635477 0.40262052 -0.36019418
-1.0370001 -0.86925691 -0.23566389
-5.9167094 0.93196982 -0.90313023
-7.2716217 0.11237355 -0.15479994
1.0370001 0.64924926 0.94103235
-1.7130907 0.83209729 -0.87452364
-7.0887694 -0.89959288 0.93550718
5.3871055 -0.59275079 0.55032438
2.25297 0.18698835 -0.14456195
-1.0370001 -0.47029015 -0.98978263
-5.3252211 -0.30469763 0.26227123
-1.2095342 0.76193529 -0.71950883
-1.0370001 -0.8152647 0.59440732
6.8482056 0.57490677 -0.53248036
1.0370001 -0.21832848 1.4023552
6.3350315 -0.10443585 0.14686222
1.0370001 0.51254249 -0.66821223
-7.1723332 -0.33897552 0.38140196
-0.028717287 1.153 -0.41370514
2.8217731 0.73197341 -0.77439982
-7.0724039 0.36861944 -0.32619303
2.745681 -0.57154995 0.52912354
-5.6447301 -0.65989345 0.70231992
-0.43591931 -0.74126148 1.84
3.2282968 -0.02094977 -0.021476595
6.6896229 0.1059297 -0.14835611
6.9700608 0.14798267 -0.10555627
-7.4444137 0.64793622 -0.60550994
-1.4512521 -0.7412982 0.69887179
-1.0973856 0.31469691 -0.27227053
0.12818149 -0.61030769 1.8400002
0.15532328 0.36823055 -1.84
5.9468985 0.89971817 -0.93538189
0.60520989 -0.69296438 -1.84
-0.95605767 -1.153 0.26353866
-1.0370001 -1.1026419 0.56288761
0.04911226 -0.8940143 -1.84
3.9065943 -0.8712095 0.91363591
0.33522624 -1.153 1.115054
-4.5678 0.25083894 -0.29326534
-0.86466253 -1.153 0.64623243
0.72523427 -1.153 -1.7417145
6.8136363 0.23754933 -0.27997571
-7.2831335 -0.70070815 0.74313456
1.0370001 -0.55331546 -0.14303914
-1.0370001 -0.32545045 1.7584651
-0.85212588 -0.037667848 -1.84
-3.764195 -0.45140937 0.40898299
-0.53810787 0.024122879 1.84
-6.7255607 -0.11656927 0.15899564
1.8076059 -0.12507308 0.16749948
2.9767663 -0.020886399 -0.021539979
0.57373142 0.019291986 1.9487286
-0.53098536 -0.10433353 1.84
2.8958116 -0.61934173 0.66176808
-1.0370001 0.70242435 -0.032888085
-5.845758 -0.40476406 0.44719046
-2.6696939 0.85719335 -0.89961976
-2.4559615 0.15138942 -0.10896301
-4.8927078 -0.29619342 0.33861983
-3.5752554 -0.48028234 0.52270871
3.075706 0.72454631 -0.76697272
1.0370001 -0.041788828 -0.85970962
1.0370001 -0.52171034 -0.12061708
-3.8264499 0.39307913 -0.35065272
-4.1251345 -0.69353253 0.65110612
0.3014251 1.153 -0.14253223
1.7552471 -0.5447095 0.50228316
-6.2170911 -0.66586089 0.62343448
0.2121128 -1.153 -0.21141212
-0.62308902 1.153 -1.4928375
2.8215129 -0.83229131 0.87471771
-6.1667862 -0.13507529 0.092648931
3.449121 -0.85312575 0.89555216
-3.5945246 -0.92926878 0.90583128
-1.0370001 0.39303046 -0.16036697
-2.3764508 -0.5823822 0.62480861
3.5132477 -0.59005666 0.54763025
-5.2880197 -0.12360603 0.16603242
-4.8498559 0.32034028 -0.36276668
-0.5149073 -0.20030193 1.8522528
-4.3102241 -0.095819786 0.05339339
3.6870284 0.90387797 -0.86145157
-0.79566789 -0.36212844 1.84
-0.78708571 0.76613808 1.84
-5.1130252 -0.48053309 0.43810672
4.0493836 -0.93841022 0.89668983
1.4013767 -0.45075935 0.40833297
-6.7893872 -0.87846494 0.83603853
-1.0370001 1.0756422 1.1888549
6.8311915 0.41546869 -0.4578951
-0.22362588 0.73984051 -1.84
-1.0370001 -0.34701675 -0.13359571
2.1747692 -0.17904626 0.22147265
-0.010015382 1.153 -1.7326771
4.0437613 -0.37608233 0.33365595
1.0370001 -0.29165566 -1.6253941
3.42906 -0.57821399 0.6206404
2.9519231 0.75219244 -0.79461884
0.15235801 -1.153 -0.96889383
1.0370001 -1.0727385 -0.68090934
-5.3827357 0.37188044 -0.32945406
6.5676303 0.21757227 -0.25999868
0.55767846 -0.068686694 1.8508924
-4.8369446 -0.2610282 0.21860182
3.3635902 0.51683128 -0.55925763
-0.50320953 0.23630618 1.9515827
2.0445409 0.63162678 -0.5892005
0.87870693 -1.153 1.0346572
1.8128289 0.90356398 -0.86113757
5.7748423 0.47805455 -0.52048099
-3.0694804 -0.33494759 0.37737402
-0.57125628 1.1057138 1.84
-0.58535922 -1.153 0.49915594
3.3000734 -0.13687797 0.094451539
2.6131825 0.42429614 -0.46672249
5.6883974 0.10372242 -0.14614879
5.1104593 0.42275813 -0.38033178
5.4373446 0.51698387 -0.55941021
-2.5534532 0.27969366 -0.23726733
3.4422412 -0.80106658 0.75864017
0.13261856 0.10496281 -1.84
2.6799459 0.54750341 -0.58992976
1.4847134 -0.47773543 0.43530899
-0.93198562 -1.153 0.69697511
0.31632474 -1.153 -0.67475951
7.1143713 0.47055802 -0.5129844
-1.5495276 0.59878188 -0.64120829
-3.4653423 -0.88577789 0.92820424
-1.51197 -0.17866588 0.13623951
-6.1976247 -0.33325201 0.37567836
3.8641484 0.50306213 -0.54548854
-1.0370001 1.1141104 1.7486881
4.3595099 -0.025626801 -0.016799591
0.56155497 1.153 -1.0925512
3.345556 -0.26474094 0.30716735
0.16940364 -1.153 1.0773294
1.0370001 -0.18719892 0.96815789
2.5049071 0.18956584 -0.14713943
-6.3009562 -0.27600977 0.23358339
-3.1157455 -0.61852968 0.57610327
-2.6730177 -0.59833747 0.55591118
-1.0370001 0.88555998 -0.8935951
0.50873309 0.21930289 1.8607411
-1.0370001 1.0231196 -1.0916649
-5.1178422 0.86277455 -0.82034826
5.8110228 -0.13481116 0.0923848
7.042913 0.22068326 -0.26310968
-1.0370001 -0.020857431 0.90112191
-6.8616152 0.58264649 -0.54022014
-1.0370001 1.1182902 -0.92682397
1.1768274 -0.88604057 0.84361422
1.9718757 -0.89961976 0.85719335
3.2503963 -0.26190725 0.30433363
-5.972775 0.90984893 -0.92525113
0.870781 1.153 -0.10556227
-2.3885837 0.49864045 -0.45621404
0.023093903 -1.153 1.5054539
1.6079555 0.74640101 -0.70397466
3.6838961 0.42800668 -0.38558027
-0.62290812 -0.63750595 1.84
1.8384345 0.54937601 -0.59180242
-0.59087569 1.153 1.1265489
-1.0370001 0.82023734 0.95590425
-2.2106707 0.91564602 -0.87321967
2.1272724 0.43301857 -0.39059213
-4.3455596 -0.50739896 0.54982537
-0.47547352 -1.153 -1.233157
-1.0370001 0.77674919 1.6651301
-3.2337754 0.69137281 -0.73379922
1.5497104 -0.55387366 0.51144731
-0.2008267 -0.86050993 1.84
1.6490052 0.63193554 -0.67436188
-6.4283943 -0.86686683 0.90929317
-6.7361197 0.060587984 -0.018161591
4.4516029 0.71722889 -0.67480254
1.0370001 -0.91751713 1.6726989
5.3434796 0.83184749 -0.78942114
6.2861753 0.10800125 -0.065574862
-0.22393247 -1.153 -1.6093445
2.5182335 0.034883197 0.0075431978
0.36549717 -1.0525349 -1.84
-0.016136196 -1.1213787 1.84
-4.855823 -0.21968849 0.17726211
-1.0370001 0.46209237 1.5540167
4.183722 -0.40075752 0.44318396
-7.2516956 -0.83319956 0.87562597
-0.44910133 1.153 -0.10593777
0.72628725 0.26397181 -1.84
1.8341211 -0.13033961 0.172766
7.2068019 -0.1026147 0.060188297
6.3760095 -0.86369616 0.82126975
2.0738277 0.49428567 -0.45185927
6.8013873 0.57672125 -0.6191476
1.0665715 -0.096165299 0.13859171
2.3245883 0.024143221 -0.066569567
0.75822294 -1.153 1.0496416
-0.64426219 -1.153 -1.5878669
-5.4946623 0.3349072 -0.37733367
5.0450597 0.7796495 -0.73722309
-0.41405356 -0.44210652 2.0189772
4.1099691 -0.34953108 0.39195749
6.7498507 -0.44703746 0.40461111
-1.057 -0.05503802 -0.032482643
-5.4453392 0.20794205 -0.16551569
-7.1563783 0.058017094 -0.015590699
1.0370001 0.66170228 -0.72523552
-1.0370001 -0.84081459 1.6157868
-0.34402341 0.46351534 2.0400002
-0.58363992 -1.153 1.5570382
2.3988311 -0.071262911 0.028836548
1.0370001 -0.21900703 0.30222917
6.0645862 -0.046459202 0.0040328065
-1.0370001 -0.21256046 -0.3049005
-1.0370001 0.82751673 -0.30677077
6.9465671 0.75179362 -0.70936722
-1.0370001 0.77243763 1.6407754
-0.28349715 -1.153 0.51585436
-6.0682082 0.64838821 -0.6059618
-0.0087052006 -1.153 1.81213
-3.064008 0.92578369 -0.88335729
0.42870179 0.67613196 -1.84
3.1063685 -0.89449054 0.93691683
3.4195271 -0.41984466 0.46227103
-1.0932903 -0.89399135 0.86009204
-5.7001758 -0.55473632 0.51230991
7.4201069 -0.52100575 0.4785794
5.3386054 -0.76316559 0.72073919
-0.10460181 1.153 -0.65973932
-3.1009703 -0.58640289 0.54397655
-2.325052 -0.57472855 0.61715496
1.0824322 -0.28306809 0.32549453
-0.51723969 -0.019331422 -1.84
0.9871915 -0.93665212 -1.84
-7.3607941 0.43202507 -0.47445145
1.6760814 -0.73078847 0.77321488
1.0370001 0.38414228 -0.47240844
-2.6927805 0.62671596 -0.58428955
1.2464536 -0.37252328 0.3300969
-2.2752483 -0.53228611 0.48985964
1.0370001 0.89117765 -0.53732121
-3.2554493 -0.63109875 0.58867234
5.7240529 -0.62105435 0.57862794
-2.835176 0.36776984 -0.41019619
-3.1661777 0.64815032 -0.69057667
-0.40944093 1.153 0.3780317
6.2574568 0.90279293 -0.86036658
7.1669722 -0.4653998 0.50782615
1.0370001 -0.38047934 0.090858489
-3.5032766 0.74888384 -0.70645744
-3.0640371 0.24629229 -0.2887187
-3.2523115 -0.59399235 0.63641876
1.1650116 0.053844929 -0.011418533
-6.3021717 -0.49070907 0.53313547
-6.5367637 -0.8033601 0.7609337
0.31279838 0.50239754 -1.84
-0.72235799 -1.153 1.7570245
4.8441796 -0.38834152 0.43076783
-1.0370001 -0.5626452 -1.5619394
-3.3745074 -0.48829859 0.530725
0.91280711 -0.64825457 1.84
7.1179318 0.58156264 -0.53913623
0.66623074 -0.8301782 1.84
3.1635993 -0.72925371 0.6868273
-3.1350672 -0.62347835 0.58105195
1.0370001 -0.80976307 0.004782082
-1.5642893 0.10333216 -0.060905796
-1.0370001 1.0725963 -1.4108348
0.4320927 -1.153 0.79939699
4.0745077 -0.2436216 0.286048
5.9247699 -0.39424449 0.43667093
5.8139925 0.28880784 -0.24638148
-1.0370001 -0.69022787 0.90182626
-0.8332268 -0.45470521 1.84
1.0370001 0.31717178 1.0863627
2.5244911 -0.32345697 0.2810306
-2.8378067 -0.47766814 0.43524176
5.0790186 0.70190203 -0.65947562
-1.0370001 1.1447034 -1.744352
4.6783886 -0.048419282 0.0059928899
-0.16681701 1.153 0.97081792
0.98774344 1.153 -0.21187666
3.1203732 0.3041676 -0.26174116
0.17491907 1.153 1.087916
-4.950861 -0.26953462 0.2271082
-1.9700967 -0.87603545 0.91846186
0.80290157 -0.24372976 1.84
0.1741768 -1.153 -0.82063085
-3.8389196 0.43771112 -0.48013747
-0.31855205 -1.153 0.92260188
-0.8159861 -1.153 0.18595155
1.0370001 0.38304663 1.125861
1.5105418 0.34308419 -0.38551056
-3.9975183 0.13822718 -0.095800787
-5.7809949 -0.073930882 0.11635727
-1.0370001 0.090313159 -0.32893163
-5.9827061 0.27114302 -0.22871663
4.4757857 0.70225561 -0.65982926
-1.0370001 -0.082930282 0.57594967
-5.8951426 0.90056068 -0.85813427
2.1071105 -0.75220382 0.79463017
-1.0370001 0.14403 -1.0984988
0.90623075 0.71928996 1.84
-0.16250344 -0.54326987 1.84
6.3378906 -0.072744727 0.030318331
-1.2283459 -0.11676951 0.074343085
1.0370001 1.1168158 0.73064548
1.8156579 -0.72097135 0.76339775
0.45397082 1.153 1.2645342
-6.0820627 0.41235369 -0.45478007
-0.58549845 1.153 -0.31208926
-6.4395475 -0.6115216 0.56909513
5.7319951 -0.38184416 0.33941776
7.0230775 -0.68660873 0.72903514
-6.9804521 0.89306045 -0.8506341
-1.7744712 -0.005060181 -0.037366245
3.6502073 0.1838131 -0.22623949
6.6737318 0.88031942 -0.92274582
5.1346984 -0.8698023 0.9122287
-3.8738875 -0.61063099 0.6530574
-0.68202949 -0.72201419 1.84
-4.7767181 -0.61421978 0.57179338
0.076860875 1.153 0.28817976
1.0256242 1.153 -0.51453453
-1.9609555 0.46350807 -0.42108163
1.0370001 -0.8613739 -0.82533711
-1.0370001 -0.42704269 0.74933159
-2.0437951 0.68960667 -0.73203307
6.3418412 -0.10126266 0.14368904
-2.8968523 0.53981334 -0.4973869
7.0571675 -0.0061893617 0.048615754
2.466758 0.21430232 -0.17187591
-1.3233247 0.58259249 -0.62501889
-7.1573548 -0.15492268 0.19734904
0.89481384 1.153 1.7858641
-0.63645387 -0.21238954 -1.84
3.6429288 -0.34631717 0.38874358
-0.4658421 -0.18840809 -1.84
4.9559898 0.26184881 -0.30427516
-4.6846986 0.31200442 -0.26957801
5.0120335 -0.5151931 0.4727667
0.85130727 -1.153 -1.0317166
-1.0370001 0.68361467 0.64408994
5.2887249 -0.92230868 0.87988228
-6.0038462 0.33474651 -0.29232007
0.58228344 1.153 -1.0030342
-4.8404727 -0.21549855 0.25792491
1.0370001 -1.0295438 1.4804515
5.1308899 0.1979128 -0.15548639
-5.7274542 0.56245631 -0.60488272
-7.1543627 0.60886294 -0.56643653
-7.1554193 0.65709138 -0.61466509
-2.2713315 0.81380332 -0.77137691
0.3448967 -0.82769501 -1.84
7.3134389 -0.5506779 0.50825149
1.0370001 -0.87923855 1.0168619
-3.5749066 -0.36213106 0.40455747
-1.0370001 0.20281941 -1.8341726
3.1528852 -0.92425716 0.88183081
-2.8389807 0.87838405 -0.92081046
-6.4932399 0.71543574 -0.75786215
0.14083387 1.153 -1.5948449
-3.0771611 -0.27837032 0.32079673
-1.0370001 -0.30206642 -0.49888813
-3.6624496 -0.77188528 0.72945881
7.5175929 -0.47916257 0.45133737
4.5637813 0.36165735 -0.40408376
1.0370001 0.32927835 -0.057626057
2.5857556 0.57717526 -0.53474885
1.0370001 0.0050738109 -0.53005069
-0.91976142 -1.153 -0.57067531
0.047547456 1.153 -0.36254129
2.6995714 0.78235793 -0.82478434
1.4506207 0.52630419 -0.48387778
0.46283692 -0.29686108 1.84
0.53486156 -1.153 1.3914312
0.0035275633 1.153 1.7243624
6.0881238 0.35346821 -0.31104186
-2.8476286 0.75034958 -0.70792317
-5.2518997 0.071125157 -0.028698763
5.3164797 -0.64203948 0.68446583
3.8542101 -0.57748908 0.53506273
1.0370001 0.41317573 0.43724155
-3.5292535 0.71680206 -0.75922841
4.9521313 -0.13210765 0.17453404
1.0370001 0.91545576 -1.077976
-5.8311749 -0.5356409 0.49321449
-1.19943 -0.62271553 0.66514194
-0.68450111 1.153 0.17917952
0.61792284 0.93523586 1.84
-0.3324717 -0.72156435 1.84
-1.7772547 -0.75897306 0.80139947
0.4983727 -1.153 1.7855585
-4.5373464 -0.47972798 0.43730161
0.6512692 0.37769508 1.84
0.4927586 -1.153 0.71892804
-0.89560163 -1.1427379 -1.84
-1.7409321 -0.64806646 0.69049287
4.8626847 -0.4387497 0.39632332
-4.2542973 -0.52561879 0.5680452
1.0370001 0.71794379 0.5609796
-1.0370001 0.78097272 1.3358634
-7.356164 0.92937845 -0.88695204
-0.3628186 -1.1369759 1.84
-1.0210549 0.54659295 -1.84
1.0370001 -0.65976912 0.6243909
1.6770514 0.40638912 -0.36396265
0.48821676 -0.33220297 2.0400002
-4.8291154 0.5013814 -0.54380774
-6.1557198 -0.15435994 0.11193348
-2.5327785 0.589131 -0.54670459
-0.93372309 -0.65862322 -1.84
-0.47758055 1.153 -1.1082821
0.98111856 -1.153 -1.4131573
1.690213 0.61413139 -0.57170498
-0.086372688 0.53443873 -1.84
1.4965427 0.93365163 -0.90144837
6.5187979 -0.59564656 0.55322021
-4.1438475 -0.77121735 0.81364375
-4.1075959 -0.63522202 0.59279561
-5.7874551 0.78567064 -0.82809705
-1.0370001 0.33686635 -0.0027603609
-4.2998781 -0.60711139 0.6495378
2.1691608 -0.23983946 0.19741304
-0.53065675 0.17474991 -1.84
-0.042315736 -0.24132091 -1.84
4.5323706 -0.12101484 0.078588411
2.8127222 0.44243452 -0.4848609
-2.9428618 -0.22696123 0.18453486
-1.3029275 -0.82257444 0.86500084
-3.7463746 -0.59066975 0.63309616
-6.3305883 -0.90190291 0.85947657
3.7154915 -0.055482402 0.013056008
-1.0370001 -0.32292017 1.403824
-0.31266102 -1.153 0.90868169
-6.5139523 0.20960709 -0.2520335
0.54501718 -0.40956452 1.84
-3.6976469 0.0073936163 -0.049819987
6.7217112 0.53643876 -0.49401236
0.063479297 0.55159843 1.8762467
1.0370001 0.62980944 1.7859769
-1.0370001 -1.1112638 -1.240656
-3.2405255 -0.92163819 0.91346192
7.3536801 -0.271644 0.2292176
4.2150044 -0.83386827 0.79144186
-1.0370001 0.22983757 0.65959793
-1.6719942 -0.41914129 0.37671492
-2.981401 -0.760225 0.71779865
0.93796855 1.153 -0.45656025
-3.0824025 0.69063127 -0.64820492
-0.98943692 -1.153 1.2260584
1.0370001 0.71692365 1.5581517
0.90537161 -1.0463824 -1.84
0.62984484 1.153 0.235284
1.0370001 -0.9643122 -0.91361612
-4.5549774 -0.62466407 0.58223772
1.0370001 0.85513854 0.3240411
-1.3901238 0.68013495 -0.63770854
1.5184289 0.43235335 -0.38992697
-1.0370001 0.26023048 -0.37677422
-4.6177278 -0.65099728 0.69342369
-0.21467774 -0.52582937 2.0338182
-0.82166862 1.153 0.34197807
4.133266 0.79736924 -0.75494289
-3.4847403 0.90288317 -0.93221688
-6.3869429 -0.70115685 0.65873045
4.6661687 0.66531301 -0.6228866
5.2035012 0.45295343 -0.41052702
6.2755599 -0.46492299 0.50734943
-0.075404517 0.47077358 -1.84
-0.028760942 -0.94864833 1.84
0.50421858 -0.23321263 2.0037639
-4.9867678 -0.7648952 0.80732155
-6.0139265 -0.15928856 0.11686219
0.75656527 0.42278492 1.84
-1.6558614 -0.27621675 0.31864309
-1.0370001 0.46886724 0.26985317
0.45172036 -0.4147639 1.8467264
-0.71456754 -0.22757775 -1.84
5.6083407 0.40735954 -0.44978595
0.14304875 -0.55161583 1.9839677
-4.4203744 0.9196859 -0.87725943
1.0370001 -1.0888038 0.83538133
-0.88463837 -1.153 -0.1804748
-6.9986033 0.021045197 0.021381196
2.3197422 -0.83070582 0.87313223
-2.7813952 0.86939776 -0.91182417
5.2049417 0.44997501 -0.49240142
-4.8383775 -0.56877458 0.52634817
1.4152687 0.7840147 -0.82644105
2.2765095 -0.41961831 0.37719193
-7.303226 0.66822886 -0.71065527
2.364738 0.26405495 -0.22162853
0.50369185 1.153 0.70035183
-6.3717632 0.72781408 -0.68538761
-6.2272072 0.81649143 -0.77406502
7.1254959 -0.54166532 0.49923894
7.4237256 -0.89220494 0.93463129
2.1615562 -0.59819579 0.55576938
-5.7351203 0.79016429 -0.8325907
-6.9264698 0.6112076 -0.56878126
7.4764943 0.03738904 -0.079815432
-0.55569649 0.074785389 1.8742462
-6.6575942 0.49401236 -0.53643876
0.76003456 0.57698202 1.84
-2.2769392 0.39205921 -0.3496328
5.880949 -0.75855941 0.80098581
0.31266439 -0.15726496 1.84
1.0370001 1.0669721 0.35416314
-1.0370001 0.86036098 -1.1319872
5.7363091 -0.062092502 0.1045189
-0.18096447 -0.74988848 -1.84
5.8794694 -0.90598887 0.86356246
-4.4775586 -0.65264487 0.69507128
-3.996053 -0.68030244 0.72272885
-0.35242677 1.153 1.2770225
1.0878619 0.75801528 -0.71558893
4.3712125 0.52917576 -0.48674935
-0.96640545 -1.153 -0.034984499
3.3906362 -0.68762743 0.64520097
3.785584 0.17287418 -0.21530057
1.7769108 -0.16107529 0.11864891
-6.7078605 0.74977726 -0.79220366
5.0000277 0.47572541 -0.43329903
6.9555678 0.48013747 -0.43771112
-7.1979313 0.34947345 -0.30704707
-5.4335384 -0.13906825 0.18149467
-0.8991524 -1.153 1.0980417
0.15422255 0.66241676 -1.84
-2.0330815 -0.70433682 0.66191041
-2.7264857 0.79929423 -0.84172064
-4.0356641 0.53206521 -0.48963881
5.5447121 -0.91012114 0.92497891
-0.35907787 -1.153 -1.3838944
-4.6476178 0.20039713 -0.2428235
1.0370001 -0.8943544 -0.13168764
-1.0370001 -0.43043086 0.081167117
-1.2711351 0.31048244 -0.26805604
-2.5642343 0.76051605 -0.8029424
-6.9123163 0.40227577 -0.44470218
-1.0370001 0.67031026 0.37033883
5.470644 0.027352937 0.015073457
3.320194 0.76071751 -0.7182911
-0.8000598 0.52219582 -1.84
1.0370001 -0.60042459 0.87491608
1.9021828 0.21717475 -0.25960115
6.7020307 0.93795097 -0.89552456
-2.1679204 -0.036930453 0.079356879
-0.99813545 -1.153 0.87856174
1.0370001 -1.0670277 1.8252865
1.9254376 0.42130393 -0.37887752
-5.2756476 -0.93256193 0.90253806
7.3113432 0.83771169 -0.88013816
1.0370001 0.71364689 0.042288445
2.5239022 0.36603197 -0.32360554
-1.0370001 -0.9169724 -0.10617822
3.8811448 0.51311648 -0.47069007
-7.014739 0.87951374 -0.83708733
7.2602115 0.52248091 -0.56490731
1.0370001 -0.35407346 1.3664471
-1.2386681 0.387409 -0.34498265
5.7865448 -0.17942911 0.22185554
-0.57293886 0.18176325 2.0354028
3.1118445 -0.19232932 0.14990294
-1.0370001 -0.52968979 0.8335399
-2.5082941 -0.31002915 0.2676028
-4.0385833 0.70605892 -0.74848533
-2.8159704 -0.38654146 0.42896786
0.3531974 1.153 -1.7860887
2.0172403 -0.43378109 0.47620746
1.8570899 0.92984504 -0.90525502
-6.0152555 -0.55129617 0.50886983
0.32700339 0.49056616 -1.84
3.4498506 0.90140343 -0.93369663
-5.3647499 -0.59894329 0.55651695
1.0370001 -0.86883372 -1.7028083
-4.6191878 0.3080368 -0.35046321
0.30341038 1.153 -0.32277346
-1.0370001 -0.97874349 1.5503373
-6.9559903 -0.64477313 0.60234672
-0.28619966 -0.9222796 -1.84
1.4390132 0.1306389 -0.088212572
-0.33254382 1.153 1.599202
-1.2221341 -0.41542709 0.37300062
0.39486963 1.153 -0.50552297
-1.0370001 -0.40607187 1.1647053
-0.39788514 0.93319035 -1.84
-6.8335476 0.63798261 -0.68040901
4.8624835 0.35453677 -0.31211036
-3.5733225 0.83837074 -0.79594439
-7.2759204 -0.10255015 0.060123753
-1.8817172 0.77595866 -0.81838506
-6.3289247 -0.72369522 0.68126881
-1.0370001 -0.22852488 -0.41205519
-0.56110513 -0.058149971 1.9033321
1.0370001 -0.35847706 -0.16646118
0.75539464 -0.97197777 1.84
6.1155653 0.34535146 -0.38777789
4.8308206 0.59281981 -0.5503934
-0.38582289 0.79092109 -1.84
-0.94705886 0.4513151 -1.84
3.1651886 0.57564002 -0.53321368
-0.11797718 1.153 -0.24152303
-4.7770348 -0.19794935 0.15552294
-0.55125391 -1.153 -0.39518726
-2.0355799 0.89846116 -0.85603476
-7.4573822 0.77478963 -0.81721604
0.1081791 1.153 1.3760186
-0.61642307 -0.30926514 -1.84
2.5784411 0.65630412 -0.61387771
6.5526085 0.4804484 -0.52287477
1.8111707 0.3072505 -0.34967691
1.0370001 0.53069723 1.114614
4.4566488 -0.66481936 0.62239295
-0.11183842 -0.57546753 -1.84
0.93432045 1.153 -0.077903993
-0.34786132 -0.79514652 -1.84
-0.4632172 -1.153 -1.8258944
-4.3452826 0.11856367 -0.16099009
1.0370001 -0.69558555 0.79064125
-4.5799537 0.53445572 -0.49202931
-3.7102571 -0.34619296 0.30376655
1.0370001 -0.75066733 -1.3160079
-4.677547 -0.2497644 0.20733804
1.0370001 0.082253285 0.35328847
-1.1148944 -0.06067792 0.10310432
-1.0370001 -0.99231368 0.22307688
3.9464488 0.06405279 -0.10647918
-3.5880091 -0.56778359 0.52535713
-0.86320227 -1.0955997 -1.84
0.47116518 1.153 -1.0046196
-1.0370001 -0.96112925 0.99202889
-1.0370001 -0.22613527 -1.6444755
4.5648541 0.05459952 -0.012173126
1.5943391 0.020257538 0.022168858
-2.188519 -0.50992668 0.46750021
-0.36440638 1.153 -0.29924062
4.5532146 -0.015124085 0.057550479
-3.4945459 0.4993819 -0.54180837
0.58156973 -1.153 -1.3825002
6.5335689 0.66092962 -0.70335603
-1.8083578 -0.55512136 0.59754777
-1.5642729 -0.86527234 0.90769869
-0.20874529 1.153 0.22636916
3.3797634 0.31911761 -0.27669126
-0.90247113 -1.153 0.74779046
6.8229547 -0.1848253 0.22725169
-3.8012521 0.43625453 -0.47868091
4.0413084 -0.4763245 0.43389809
-1.7258897 0.45478466 -0.49721107
6.0671349 0.35182455 -0.39425093
5.6128201 -0.036817294 -0.0056091007
5.0883465 -0.93292964 0.89050323
-0.80175138 1.153 -1.3150868
-0.97786367 1.153 0.28248048
1.0370001 0.072764359 1.098296
-1.0370001 0.30358052 0.45137501
-0.17501612 -1.153 1.3056588
-4.2882977 -0.70852518 0.75095159
-3.4160235 -0.77451456 0.73208815
0.23079774 0.5141241 1.9905524
0.7019887 -1.153 -0.2769683
-1.0370001 0.39757708 1.4244609
0.81951332 -1.153 0.54482663
-6.8194308 0.39114565 -0.34871927
-6.6246853 -0.88537836 0.84295195
2.9829545 -0.097333916 0.054907504
-1.2253238 -0.60572934 0.64815569
2.5839815 -0.0027766114 -0.039649781
-0.1365664 -1.153 -0.018181236
-0.59052789 1.153 1.2515943
6.3863845 0.061107639 -0.10353404
-5.9571538 -0.1980944 0.15566798
-1.0370001 -0.0973178 -1.1160895
-1.0370001 0.55107164 1.1599126
-7.0147982 -0.92531413 0.90978593
-3.9455683 -0.38087699 0.4233034
1.0370001 0.11495906 0.52674258
3.1862452 0.37449056 -0.41691694
3.0270693 0.45759156 -0.41516519
5.7798557 -0.56986868 0.52744228
3.3180401 -0.093917392 0.13634379
1.0370001 0.48911014 0.056777939
0.86825556 1.153 1.7830132
-5.4469719 0.23224927 -0.2746757
5.5543642 -0.6768496 0.71927601
-7.3282313 0.63718057 -0.59475416
-0.4043515 -1.153 -1.5956093
3.5663235 0.47968948 -0.43726307
1.0848347 0.34894621 -0.30651981
1.0370001 0.67150885 0.59488219
4.2342477 0.8848815 -0.84245509
0.31216466 -0.51614726 1.9239799
-3.3049564 -0.2680361 0.31046245
7.2950788 -0.27330777 0.31573418
-6.9682026 -0.90765011 0.92744994
-6.5586338 -0.56905371 0.5266273
-3.4395475 -0.83204663 0.78962028
-1.0370001 -0.34634364 -0.085288867
-0.25275242 1.153 -1.204469
-0.33439136 1.153 -0.38429603
-1.0370001 1.0188636 1.4881978
-7.2628417 -0.082319282 0.12474565
-6.0314164 0.23828928 -0.28071564
-0.21360123 -0.00077380374 -1.84
-0.95528889 -1.153 -1.1242057
5.7012334 -0.77168661 0.81411296
-0.85285795 -0.89513159 1.84
-7.486083 0.54382265 -0.58624905
0.75181329 -1.153 0.17841366
-1.0370001 -0.73387146 -0.48487502
-2.5885937 -0.12995709 0.1723835
5.7464957 -0.80751866 0.84994501
1.3644682 0.80761254 -0.85003895
-0.63298345 1.153 -0.079192631
-5.1601577 -0.9182381 0.8758117
6.6179614 -0.10333353 0.1457599
0.90514582 -1.153 -0.90613544
1.0370001 0.81254721 1.3562702
-1.1444809 -0.66952115 0.62709475
-1.4086934 0.090535894 -0.13296232
1.0228019 -1.1116946 1.84
-1.0370001 -0.26344684 1.2767946
5.6658831 8.0780032e-05 0.042345613
4.4098325 0.49838352 -0.45595711
7.3534865 0.40913141 -0.36670506
1.0370001 0.23712711 0.032429554
0.25373057 0.49748021 1.9010693
0.79741961 1.153 1.5475626
-1.0370001 -0.29139099 0.61786526
0.76935709 1.153 -1.0826136
0.13456547 -1.153 -0.6778627
-1.0370001 0.76064563 -0.085688755
0.97068435 -1.153 -0.91506326
-2.0206051 0.89148611 -0.93391252
7.1466589 0.2980471 -0.3404735
-1.0370001 0.90040916 -0.23469993
1.0370001 0.338801 1.0213547
1.7751822 0.36086628 -0.3184399
-1.0370001 1.0461529 0.23813792
4.8654275 0.58000064 -0.62242705
3.4190936 0.62115604 -0.57872957
-0.4819364 0.94156069 -1.84
0.33544397 -1.153 -1.1797745
-7.302341 -0.21742539 0.17499897
-1.0370001 0.44903579 0.2601265
1.0370001 -0.96462739 0.4667868
-2.6657009 0.85116357 -0.80873716
-0.45251068 -0.21618751 -1.84
0.62187928 -0.03114685 2.001339
0.57456702 1.153 1.7535201
-1.4315521 -0.74919981 0.7067734
-6.7002115 -0.24612123 0.28854764
0.11719614 1.153 -1.6224959
-1.0370001 -0.28262836 1.2710731
-1.7094315 0.56818587 -0.61061221
1.0370001 1.0666019 -0.72091079
-1.0370001 -0.89421964 -0.22416499
-7.4282904 0.56697476 -0.52454835
6.639822 0.41611025 -0.45853665
4.9182968 0.81490529 -0.77247894
-1.3412228 0.0077493899 -0.050175782
-0.63166368 1.153 1.1718971
-6.4571166 0.058952946 -0.10137933
-1.0370001 -0.32613856 -0.96620733
0.74778849 1.153 1.3398982
-6.1367054 0.63605863 -0.67848504
4.5915093 -0.76151323 0.80393964
1.444029 -0.51586556 0.47343916
-6.456182 -0.23203422 0.18960786
-7.0715108 0.22357786 -0.18115143
4.7752504 0.45371482 -0.41128841
7.3913636 0.61310929 -0.57068288
1.2433983 -0.56415939 0.52173299
1.0370001 0.63455033 -0.73885465
4.5350089 0.28511667 -0.24269032
2.6871002 0.32618669 -0.36861306
4.9342132 -0.33401617 0.37644252
5.5540891 0.081789099 -0.12421548
7.2228847 -0.81562525 0.85805166
3.4577844 -0.50250381 0.46007743
-1.3451355 0.79236078 -0.83478719
4.2815995 0.22013958 -0.262566
-7.1954741 0.64494789 -0.60252154
1.0370001 -1.0409163 1.3425937
5.1001234 0.79659951 -0.83902603
0.65576279 0.19618763 -1.84
7.1425343 0.59526575 -0.63769215
-6.3464823 0.75391096 -0.79633737
-1.0370001 -0.60925847 1.3995504
1.0827237 0.20346302 -0.16103661
-5.4815621 -0.79553539 0.83796179
-3.0193553 -0.039548952 -0.0028775025
-0.51613837 0.19651099 1.8520093
-5.1882653 0.76790863 -0.81033498
-0.29406369 0.23473501 1.84
5.6562743 0.40171042 -0.35928401
1.0370001 -1.0508642 -0.50130409
-1.9950967 -0.56084836 0.60327482
4.9915867 0.51623428 -0.55866069
-4.6480098 0.069586702 -0.027160309
1.4273478 0.19434746 -0.23677388
-2.3259523 0.20414424 -0.24657065
-1.0370001 0.29980925 0.86680442
-7.4043989 0.91009128 -0.86766487
-2.3611064 0.31450155 -0.3569279
2.413074 0.010604798 -0.053031191
0.17274891 1.153 -1.7237066
7.0223203 0.2024485 -0.24487486
-1.0370001 0.72069973 0.28476399
-6.1458902 0.39746901 -0.35504255
-3.4676003 -0.61559767 0.65802407
-1.0370001 -0.57198334 0.76301688
0.45676637 -1.153 0.11856665
5.7831216 -0.59251398 0.63494033
1.0370001 -1.1480626 -0.95710617
0.79441911 -1.153 0.071189061
0.89528054 1.1529999 -1.6408765
7.1509848 -0.18873587 0.23116228
0.58027166 -1.153 -1.0076152
-1.0370001 1.131381 1.8137565
2.2215035 0.2048241 -0.16239774
0.3804262 -1.153 0.38857052
-1.0370001 0.33334109 0.26090682
0.27391717 0.68225604 1.84
-5.9479494 -0.49569839 0.45327196
1.0370001 0.41912311 -1.2750479
2.4342771 0.83047926 -0.87290561
-1.7432619 -0.10505815 0.062631749
0.3753379 0.02087784 1.84
7.3209362 -0.14571683 0.10329045
0.01933191 -0.39162323 -1.84
6.2315569 -0.46863136 0.51105773
-0.67851323 0.57145512 -1.84
1.0370001 -1.020553 0.18474546
-1.3141528 -0.086579897 0.12900627
-1.5546536 0.18057707 -0.13815065
3.7364826 -0.76712239 0.80954885
-0.65726775 0.55220908 1.84
-6.5954194 0.10973033 -0.15215671
0.34827822 0.46361795 -1.84
2.2876332 -0.28809974 0.3305262
-0.28752881 -1.153 -0.70266163
-0.12731604 1.153 -0.24713375
5.191431 0.048043918 -0.090470314
-1.0370001 0.062516339 -0.47337112
3.3521986 -0.81439388 0.85682023
2.4678471 -0.4652358 0.42280942
6.4915299 0.71477491 -0.67234856
-0.77735126 -1.0132245 -1.84
-2.5564647 -0.60893863 0.65136504
4.6580763 0.14888315 -0.19130954
-1.0370001 -0.60054648 -0.30501831
7.0243196 0.29955521 -0.25712889
-4.0691705 -0.62822133 0.58579499
-1.0370001 0.96148515 -0.60097569
6.6225014 -0.13271305 0.17513941
3.1385295 -0.41365027 0.37122387
5.7543769 0.1025563 -0.14498271
1.6868343 0.84211677 -0.88454324
-6.3135724 0.34755293 -0.38997933
-0.58032972 -1.153 -0.30383122
7.4702892 -0.18880852 0.23123488
-0.22526678 -1.153 0.486662
-2.5081041 -0.60471821 0.56229186
4.54245 -0.17952503 0.22195143
-2.0254617 -0.70152289 0.74394923
6.2134376 0.28102598 -0.32345241
-2.2937305 0.90203214 -0.93306792
-1.8720939 0.90347278 -0.86104637
4.3420954 -0.3831242 0.42555058
-0.45170489 1.153 -1.6529005
-3.9988446 0.88216943 -0.92459583
-0.2628811 1.153 1.5688457
-0.56517404 0.045626104 2.0336235
5.101615 0.86566681 -0.90809315
-4.2197442 -0.91019595 0.8677696
-4.6898689 0.19211222 -0.23453858
5.7984481 0.71815652 -0.76058292
-6.7162652 -0.88449419 0.84206778
-1.4212282 -0.044684205 0.087110601
1.3416377 -0.11878821 0.16121463
1.0370001 -1.0632269 -1.6278237
-1.7621658 -0.56474465 0.60717106
-1.2234154 -0.054666508 0.097092897
-0.87991172 -1.153 -0.65232897
-4.7188797 -0.66551489 0.62308848
-1.9606577 0.81231314 -0.85473955
-1.5452636 0.55634433 -0.5987708
-1.9309483 -0.65166676 0.60924041
-1.8162695 0.38464814 -0.42707455
1.8641512 0.031981174 -0.074407563
-1.0370001 0.66335851 -1.3557272
5.9776349 -0.7261315 0.76855785
1.1101633 -0.34369925 0.38612568
-6.1811762 0.40089738 -0.35847101
0.64638066 -0.77003616 -1.84
4.5915008 0.80937123 -0.76694489
7.35392 0.74631417 -0.78874058
-0.72877061 0.36021018 -1.8400002
0.75608116 1.153 0.8949548
-1.0370001 0.98420066 -0.15573737
-3.4418092 0.42488417 -0.46731061
6.4289565 -0.28381115 0.24138474
1.0008934 -1.153 1.2045441
-2.4310181 -0.050326038 0.007899628
0.18200925 -1.153 -0.96559298
5.4822659 -0.18801002 0.23043641
1.0370001 0.1566515 -1.4701202
2.444874 -0.31709135 0.35951775
-0.16150633 -1.153 -0.62159365
-1.0370001 -0.7717241 1.6188142
-0.6902169 -1.153 0.70097524
-3.1907315 -0.64474672 0.68717313
0.048808597 1.153 -1.8178473
-6.2584329 0.69436467 -0.73679107
3.2348852 0.1278048 -0.17023121
1.5928988 0.30127174 -0.3436982
1.0370001 -0.642286 -1.4154596
0.99217862 -1.153 -1.6183767
0.76187539 -1.153 -1.0421392
-2.4052129 0.61423528 -0.57180887
2.8403132 -0.28520137 0.32762775
0.57342225 0.080604285 -1.84
0.47662696 -1.153 -0.12586476
-7.1815057 0.55958486 -0.51715839
2.6000216 0.81448495 -0.77205855
-0.74001426 0.63963372 -1.84
4.9070086 0.90279293 -0.86036658
-1.8481455 -0.92653054 0.88410419
3.7035475 0.45272481 -0.41029838
7.1891294 -0.4501704 0.40774408
-0.57027316 -1.153 0.61266202
-2.5227678 -0.91948193 0.91561818
1.0370001 0.87699109 1.8253675
4.9719825 0.66761452 -0.62518811
3.5600984 0.2270003 -0.2694267
-0.082096912 -1.153 0.14152698
-1.041692 0.071295366 0.099273279
4.9544015 0.057730686 -0.10015707
-6.5178351 0.033177584 -0.075603977
-2.4966574 0.58165348 -0.53922713
-4.7599154 -0.48415169 0.52657807
4.5910788 0.77977228 -0.73734587
-5.4190073 0.07230591 -0.11473233
6.9777522 -0.67828923 0.63586283
-1.3866978 0.25251731 -0.29494369
5.5798178 0.61725682 -0.57483041
-1.8581878 -0.87612045 0.91854686
-1.187585 -0.38779464 0.43022102
6.4338417 0.72513908 -0.68271267
-7.2190576 -0.60777438 0.56534797
0.23970963 -1.153 -1.4331563
-1.0370001 -0.70198572 -1.762072
-0.29159138 -0.46995693 1.9663185
-4.7538085 0.12069999 -0.16312638
3.9624515 -0.19872515 0.24115157
-3.1732543 -0.51900685 0.56143326
1.36965 0.19001207 -0.23243843
3.1703131 0.48969844 -0.44727209
-0.58812511 0.13502641 1.9103125
-0.020638611 1.153 0.63876033
3.1733639 0.31648266 -0.27405626
-1.5163094 0.5601657 -0.5177393
4.6688542 -0.19462064 0.15219422
-1.9623348 0.38996187 -0.34753555
2.5542326 -0.87086374 0.82843733
6.9105592 -0.097394295 0.13982068
-0.24785624 -1.153 -1.6848003
5.7443647 -0.46940047 0.51182675
4.3831897 -0.131779 0.17420536
1.0370001 1.0399919 -0.64492118
-6.4354219 0.78040266 -0.73797637
2.1785402 0.53360039 -0.49117398
1.0370001 -0.27043122 0.56333983
0.70584261 1.153 -0.40985006
-6.1541781 0.49784473 -0.54027104
-1.0370001 -0.21437217 -0.57101572
-5.407702 0.31730321 -0.27487683
-3.1691415 0.28867909 -0.3311055
-5.308898 0.10562836 -0.063201934
5.5987554 0.15850864 -0.11608232
4.2170949 -0.91060603 0.92449409
-1.0370001 0.75257885 0.057059187
0.39792606 1.153 -0.58270097
5.0004902 -0.90591574 0.92918438
-1.0370001 1.1075462 1.5906726
-3.5899453 -0.4895632 0.44713682
-2.6907585 -0.41261947 0.37019306
-2.9314244 -0.78975248 0.74732608
2.3633423 -0.93321723 0.90188283
0.20133182 -1.153 0.78054178
-0.038642671 0.43167618 -1.84
1.0370001 1.0077462 -1.2543894
0.40097183 -1.153 1.2651742
1.2348458 -0.33725041 0.37967682
2.8984377 -0.076858141 0.034431733
-0.073901735 -1.153 -1.4922596
-3.0670242 0.7237525 -0.68132615
-2.8232887 -0.4474574 0.48988375
4.7292843 0.022891756 0.019534638
1.0370001 0.19990504 -0.45865145
4.8422933 0.43647695 -0.3940506
1.0370001 -0.95248777 -0.43503982
3.0512199 0.49827302 -0.45584664
-0.19313298 -0.21392947 1.8400002
-5.7951555 0.31490996 -0.27248356
-0.36360723 1.1139823 1.84
2.8198431 0.30160284 -0.34402922
-1.0370001 -0.149994 -1.5735393
2.8959355 0.061530534 -0.10395692
-1.0370001 -0.79168773 -1.5541443
-1.0672742 0.17323978 -0.13081338
5.517468 0.29322213 -0.25079572
-3.1761091 -0.37445885 0.33203244
-5.1706614 0.07762824 -0.12005463
7.15309 -0.92612118 0.90897888
-5.5700912 -0.11252021 0.15494657
0.39202198 1.153 -1.281692
-0.64453411 1.1173576 -1.84
-2.2573304 0.11577907 -0.15820545
-2.7428503 0.70507169 -0.66264528
2.4427807 -0.75804847 0.71562213
1.4222534 -0.70553964 0.6631133
0.68201613 1.153 0.88359797
-0.027127961 -1.153 -1.1950094
0.74798334 -0.38296822 1.84
5.522121 0.89328545 -0.85085905
-1.3117112 -0.70394903 0.74637538
2.0479918 -0.07689061 0.11931701
-3.0813949 -0.27566153 0.31808794
2.2682946 0.49729446 -0.45486808
-0.52460635 1.153 -0.62006491
-4.9890299 0.85985827 -0.81743193
-0.021905884 1.153 1.2503909
-6.2061357 -0.49455622 0.45212978
-0.37307945 0.95558679 1.84
0.75617433 -1.153 -1.4336436
-4.2068982 0.33975452 -0.29732814
5.0026016 -0.88322228 0.92564863
6.8386431 -0.81622612 0.77379972
-6.9474797 0.22750041 -0.26992685
1.0370001 0.17217499 -0.59563643
-4.1171298 -0.70441264 0.66198623
-1.0370001 -0.077731498 -0.16710453
7.0433578 0.93169314 -0.88926679
-0.078821138 -1.153 -1.8399482
-1.9724512 0.60073268 -0.55830628
-0.86939371 -1.153 -0.52225477
6.1452851 -0.12715837 0.084731966
1.5405004 -0.19735241 0.23977876
-2.8934119 0.099447913 -0.14187425
-1.0370001 -0.054048531 1.763747
-0.49224377 1.153 -1.0018301
1.0222635 -1.153 0.72989547
-1.9482452 0.63264328 -0.67506963
5.2059908 0.86416322 -0.82173687
0.53640479 1.153 -1.5205482
2.3417785 -0.61331362 0.57088721
-1.0370001 -0.7199614 -0.0046610073
-2.5919814 -0.42735192 0.38492548
0.63517559 1.153 -1.629423
1.0370001 0.93793327 -1.6791191
-0.1252211 -1.153 1.4031445
-0.94067311 -1.153 -1.5518214
-3.8708692 -0.2440149 0.20158853
-1.0370001 1.0296228 1.7494551
1.0370001 -0.55718237 -1.6580528
-4.2144909 0.83122653 -0.87365294
-6.5254526 0.60638011 -0.5639537
-1.7857945 -0.79924041 0.756814
-5.6516204 0.053071812 -0.010645447
-5.3613877 0.64392459 -0.60149825
4.2193904 0.58406401 -0.5416376
6.5013185 0.91267651 -0.87025011
6.6521735 -0.6925447 0.73497111
1.0370001 -0.44575948 0.7840305
0.4404639 -1.153 -0.086815372
-0.52215451 -1.153 -0.88588679
5.3939934 -0.25558007 0.29800645
-3.2626367 0.16257994 -0.20500635
-0.45672113 -0.73430336 -1.84
-4.4444094 0.07545203 -0.11787839
7.5175934 0.44682625 -0.46828926
6.461988 -0.67001128 0.62758487
5.5843296 -0.37454683 0.33212048
-6.281446 -0.087489568 0.129916
3.5269024 -0.32894215 0.37136859
1.5018467 -0.72423977 0.68181336
-3.021976 -0.85766995 0.81524354
-4.1628871 -0.14733501 0.10490861
1.0370001 0.51530898 0.89198369
-1.0370001 -0.73700756 1.204833
-3.2778463 0.030642847 -0.073069245
0.42638761 -1.153 1.0656919
-3.86534 0.6250034 -0.58257705
-3.2704103 -0.45505649 0.41263008
0.96534008 -1.131897 -1.84
-5.2051344 -0.24457878 0.20215239
-0.054871432 -1.153 -0.88741982
3.5747259 0.48917252 -0.53159893
-2.2303722 -0.36923179 0.41165817
5.2795801 -0.92484975 0.8824234
-5.3993387 -0.1410687 0.18349512
0.41029602 1.153 0.61438119
0.87216365 1.153 1.3674617
-0.17542261 1.153 -0.85135746
-1.0370001 -0.36258969 -1.0034922
3.986253 -0.34781617 0.39024258
0.33872572 -1.153 1.1854155
5.1560912 0.30588573 -0.34831208
5.3181162 -0.68281883 0.64039242
1.0370001 0.92220509 1.5802242
0.46622744 -1.153 0.13862292
7.1030984 -0.26666179 0.22423539
-1.6121957 0.59239244 -0.63481879
5.7050486 -0.61963195 0.66205829
6.9251642 0.25328568 -0.21085924
3.5468545 0.70249879 -0.7449252
-1.7418357 -0.059358981 0.016932588
-4.0108986 0.21830399 -0.1758776
-1.0370001 0.058758136 -0.66839576
0.021877076 1.153 -0.40545228
-0.94241518 -1.153 0.35388917
-7.2126284 0.36261263 -0.32018623
0.16680302 1.153 1.3599797
2.5353885 0.13673709 -0.17916349
4.0818973 0.6536541 -0.61122769
1.0370001 -0.10438716 0.11997229
-3.3151217 -0.40327895 0.3608526
-3.9717801 -0.63345909 0.59103268
4.7327929 -0.86556971 0.90799612
6.05932 -0.55542862 0.51300222
5.4801116 -0.59897321 0.64139968
-3.5884933 -0.16219039 0.119764
-2.3233428 -0.31897956 0.36140594
-4.5579758 -0.10706116 0.06463477
-1.0370001 -0.072203584 1.667382
-3.6368861 -0.77577871 0.73335236
0.38608468 1.153 -0.026697634
1.0370001 0.65455407 -1.1579297
-0.85166728 -1.153 -0.7192784
2.4050796 0.36370346 -0.32127708
-0.46776474 -1.153 0.62175816
6.447989 0.10045182 -0.058025423
3.6734841 0.72399789 -0.68157148
0.58258975 1.153 -1.5425161
3.4735892 0.58998758 -0.54756117
-2.8555865 0.58710414 -0.62953061
-1.0346893 -1.153 1.7445072
4.9083338 -0.53755015 0.49512374
-2.6838284 0.92409283 -0.91100723
-3.8246241 0.095269434 -0.052843034
-5.9914365 -0.36157802 0.40400445
4.3473692 0.64792341 -0.69034976
-5.9651814 0.80136251 -0.84378892
7.2270279 0.27129188 -0.22886549
-3.2061107 -0.70324636 0.66081989
-4.2673569 0.1561905 -0.19861686
4.0750566 -0.71445227 0.75687861
6.9717231 0.1551825 -0.19760893
2.0539784 0.45371449 -0.41128814
-0.84762383 -1.153 -0.28777328
7.457509 -0.34479228 0.38721865
-0.0010122071 1.153 -1.112848
-2.5878694 0.32681182 -0.28438538
-6.0255041 0.91711158 -0.87468517
-1.0370001 1.0443676 1.3411002
-1.968452 0.22083253 -0.1784061
1.0370001 -0.50297481 -0.70091939
4.8845057 0.55871797 -0.60114437
0.1633039 -1.153 1.1575438
-1.0370001 1.1299503 0.51670331
2.811873 -0.19900727 0.24143367
-2.9635861 0.69723886 -0.65481251
3.0312991 0.23294185 -0.27536824
-7.0385618 0.81981045 -0.77738422
1.0370001 -0.45287749 0.47844338
7.4927258 0.92985088 -0.9052493
1.0370001 -0.97057575 0.45464972
7.1742048 0.85091734 -0.89334375
4.4461703 0.11579902 -0.073372625
5.1763868 0.53990418 -0.58233058
-1.1677049 0.51723003 -0.47480354
0.72893852 -0.36179233 -1.84
-0.89014667 -1.153 -0.63257164
5.1696277 0.47754577 -0.51997221
-5.257916 -0.34998742 0.39241382
7.2599258 -0.57473212 0.53230584
-0.55209732 -1.153 -0.04587784
-0.95064199 1.153 -0.3605386
-0.74318951 -1.153 1.6317295
-4.8063264 0.10052533 -0.1429517
-0.90979278 -1.153 -0.55700868
3.1253786 0.87189227 -0.91431868
-3.2118077 -0.76172519 0.80415159
-1.0370001 0.80446792 -0.74911636
-5.7220688 -0.38731185 0.34488541
-3.5006309 0.69464785 -0.73707426
6.1273699 -0.74119008 0.69876373
-1.0370001 -0.42336401 -1.2740753
2.9750671 -0.38554311 0.3431167
-1.7508318 -0.14002696 0.097600557
3.0630648 0.91351664 -0.92158341
-4.9800687 -0.072813995 0.1152404
-0.98003691 0.60670757 -1.84
3.0071309 -0.93835735 0.8967427
-0.32242197 1.153 -1.8095251
3.2796283 0.4675501 -0.50997651
-3.8999677 -0.094309643 0.13673608
-0.39497989 -1.153 -1.0621412
-1.4994838 -0.41890657 0.37648019
-1.0020757 -0.1163762 1.84
0.53495389 -0.13861312 1.8871822
-0.27804318 -1.153 -1.6775863
-4.6091337 -0.63867974 0.5962534
2.069623 0.87436324 -0.91678959
-3.6373403 0.6729418 -0.6305154
0.16384296 -1.153 1.2570741
-2.7287266 -0.36897638 0.41140279
7.0651479 0.24489662 -0.20247023
-4.889214 -0.69114298 0.64871657
-6.4479413 -0.63347876 0.67590517
6.7422891 -0.89738673 0.85496032
-6.7782297 0.36163235 -0.319206
-1.0332143 0.37373307 -1.84
-0.44667339 -0.29628021 1.84
4.934145 0.89397442 -0.85154802
-1.6694664 -0.54517817 0.50275177
-0.15901676 1.153 -0.78410542
-6.3632827 -0.45687786 0.49930423
-1.3863821 0.41767833 -0.37525195
0.83370686 -1.153 -0.61643851
-1.0370001 -0.52871072 0.22998717
5.889431 -0.60267425 0.64510059
6.9083042 0.58389044 -0.54146403
4.4869208 0.83441347 -0.87683994
-1.7799208 -0.76455021 0.72212386
-5.1577535 0.37459987 -0.33217344
6.9283462 -0.78418106 0.74175465
-6.1977081 -0.55008203 0.50765568
-1.7231839 -0.38972655 0.43215299
-5.2931623 -0.48142397 0.43899757
-3.5867224 0.57689989 -0.61932623
7.0787306 0.14417121 -0.18659763
0.9063946 -0.16366157 -1.84
6.9277143 -0.66295195 0.70537835
0.9945246 -0.78770256 1.84
-4.8953032 0.39895627 -0.35652992
-6.7875204 -0.41029838 0.45272481
-1.2136434 -0.68585801 0.64343166
-1.0370001 -0.98383451 -0.73772103
-2.9934211 0.89922392 -0.93587613
-1.9459029 -0.5317542 0.48932773
2.3616211 -0.43205827 0.38963187
7.1329265 -0.90356666 0.93153346
7.5175934 -0.45644963 0.45401052
-5.3210435 0.63416296 -0.5917365
-4.7505345 -0.40539157 0.36296517
4.1377487 0.20418729 -0.16176087
0.24806756 -0.76779848 -1.84
-2.9178202 0.5423246 -0.49989817
-7.2449689 0.63788486 -0.68031126
-2.29388 -0.58840507 0.54597861
-1.0370001 -1.0114473 1.6475072
3.25438 -0.32391295 0.36633936
-4.2365246 0.47374922 -0.51617563
2.2549095 0.15689379 -0.19932021
5.3280745 -0.46682057 0.42439419
-4.7064848 -0.93024105 0.90485901
-0.27467781 -1.153 -1.3061818
4.7664661 0.076695196 -0.11912159
1.1351615 -0.75836861 0.80079502
-1.0370001 0.32837996 0.81379217
0.71106863 -1.153 1.8181714
2.4264212 0.40172872 -0.35930231
0.56579655 0.69551599 -1.84
2.534879 -0.59497279 0.6373992
4.7789831 0.29673633 -0.33916277
1.0370001 0.83715814 -0.8202756
1.2686957 -0.25117084 0.29359725
-3.1880281 -0.79577243 0.83819884
4.1596107 0.11863807 -0.076211676
-2.2679992 -0.38984746 0.43227383
2.6852005 -0.46171793 0.4192915
-3.5800781 -0.17794554 0.13551915
0.71469951 -1.153 -0.011433716
3.5547564 0.045657687 -0.0032312928
-1.0370001 -1.0414569 -1.6169997
-1.7549354 -0.49173677 0.44931039
1.0370001 -1.0084593 1.2148374
-0.54485428 -1.153 -0.14561625
-2.4187515 -0.11043513 0.068008699
-4.6463346 -0.90523928 0.86281294
3.2091506 -0.1041816 0.14660797
-5.1991892 0.11544877 -0.15787517
1.0370001 0.22219977 -1.8357248
6.6636629 0.86368138 -0.90610778
-1.0370001 0.80050105 -0.52513945
-1.0370001 0.26078352 -1.0951576
7.4665198 -0.020505281 0.062931672
-2.535408 0.38018075 -0.33775434
-0.25919935 1.153 -1.1770071
6.3693528 0.38895062 -0.43137696
4.919601 0.13130124 -0.17372763
-0.34973964 -1.153 1.062608
-3.2483575 -0.66216511 0.61973876
-0.20307867 1.153 1.3374929
5.0409417 0.85960406 -0.81717765
1.0370001 -0.64871389 1.0626328
0.27249926 -1.153 -1.4963096
-2.7032847 0.80029911 -0.84272552
0.68971646 -1.153 -1.2221541
4.4575624 -0.67135566 0.62892938
-1.0370001 0.77468443 -0.31554002
1.6836283 0.020633806 0.021792589
-2.6116662 -0.45266277 0.41023639
2.3501017 -0.74759209 0.7900185
5.3582797 -0.10242683 0.14485319
-1.0370001 -0.23484953 0.12986594
4.2313838 0.19520384 -0.23763023
0.91950905 0.43278873 -1.84
-2.237494 0.081561528 -0.039135132
-0.13979061 0.60105944 1.9179491
-2.9032228 -0.76765317 0.72522676
2.0113003 0.10827006 -0.15069641
-0.096697852 1.153 -1.5311549
1.0370001 0.13579941 -0.73006922
-2.1192524 -0.44951403 0.40708765
-1.0370001 0.22627985 1.8099591
-1.0370001 0.33621657 0.65795368
7.5175929 0.27623588 -0.31556708
4.9304509 0.044417176 -0.086843573
-1.0370001 0.60230064 -1.5267723
-4.408247 0.60897177 -0.65139818
2.5251529 0.83715314 -0.87957948
4.8268781 0.34601212 -0.38843843
-1.0370001 -0.29661655 1.4855435
-1.1753753 -0.5662626 0.60868901
0.19278407 -1.153 -1.5428028
-1.6240413 0.76026958 -0.71784317
-0.57992536 1.153 1.7051793
5.8395567 -0.87892425 0.92135048
6.3360424 -0.44787869 0.40545231
3.6605113 -0.63301826 0.67544466
4.6996489 0.056200199 -0.098626591
-4.3119555 -0.036239136 0.078665532
2.567373 -0.31652901 0.2741026
-2.2775338 -0.45984557 0.50227195
1.3254428 0.93121529 -0.88878894
-4.3378949 0.52403742 -0.48161101
-6.7910833 0.42975923 -0.38733277
-1.0370001 -0.40604737 -1.1973773
0.90578127 1.153 -0.16249226
0.68110859 1.153 -1.1796883
1.74813 0.01213614 -0.054562472
6.7134576 0.12111579 -0.078689367
-6.8203616 0.065421388 -0.10784782
-3.7321165 0.72930187 -0.68687546
1.0370001 0.15448388 -0.46965879
-1.0370001 0.4367936 -0.99299669
5.7918067 0.45257246 -0.41014606
-3.2385554 0.85384268 -0.89626908
6.5424814 -0.91877335 0.87634695
-0.96044278 -1.153 1.2124742
-6.8563018 0.71677089 -0.75919735
4.624651 -0.48282284 0.44039646
-5.2747498 0.50015551 -0.4577291
1.0370001 0.46379396 0.3259128
0.13250528 0.4244405 -1.84
-1.0370001 -0.54757673 1.0937157
1.8093193 0.1020386 -0.14446497
-0.87318289 1.153 0.69548196
7.2109718 0.19164659 -0.23407301
1.0370001 -0.85204697 0.083890244
2.356657 -0.5020684 0.45964205
-2.8544006 -0.22098424 0.17855781
1.0370001 0.13890582 0.25249872
7.199903 -0.69093281 0.64850646
0.7215656 0.55886579 1.84
0.60336924 1.153 1.3778816
7.0779948 0.75335187 -0.71092546
3.3301973 -0.80362755 0.84605402
-1.3143128 0.53273857 -0.57516497
0.66243124 0.72015065 -1.84
0.56461149 -1.153 0.41061088
-5.3092303 0.51675636 -0.47432995
-4.2722836 0.50770545 -0.46527907
-1.0370001 0.38826334 -0.37922728
-0.52976763 1.153 -1.4466033
-0.59570283 1.153 1.4035301
-5.9275365 -0.90363383 0.86120743
-2.7543297 -0.37556377 0.33313736
-0.89651424 -1.153 -1.279022
-4.3746395 -0.89528495 0.85285854
0.87767875 -1.153 -0.79700309
1.442845 0.58888614 -0.54645967
-5.3456998 -0.34349316 0.30106673
0.081881531 1.153 1.5023035
-2.3025677 -0.81632888 0.85875523
-4.0893078 -0.59700662 0.63943303
5.4640775 0.0047473758 -0.047173768
-1.0370001 -0.46696258 -1.0260282
-0.54691011 0.042433381 1.84
3.7891147 -0.73910719 0.7815336
3.6659744 -0.87840778 0.83598137
6.6976357 -0.78029329 0.73786694
1.0370001 -0.11033023 1.4287148
-1.0370001 0.90473491 0.062756442
2.3585124 -0.58749992 0.62992632
-3.4172142 0.23283321 -0.19040681
5.70292 -0.49967241 0.45724607
0.22673991 -1.153 -0.47721562
4.1598063 0.41455209 -0.37212569
1.3014138 0.63766658 -0.59524024
0.5389021 1.153 -1.1314068
4.234086 -0.43628412 0.39385775
0.18039292 -1.153 -0.6138804
2.8219771 -0.71534884 0.67292243
-0.18374224 1.1411577 1.84
0.0099526374 -1.153 -0.51688254
1.0370001 -0.017496565 1.6057692
-1.0370001 0.58870476 -1.4535468
3.7995949 -0.62883168 0.67125809
5.7675018 0.8465969 -0.8890233
1.0370001 -0.82738853 -1.8147852
4.0181212 -0.0067521669 0.049178593
6.7184606 0.34040776 -0.29798138
1.1196096 -0.53112721 0.48870084
-1.6111213 0.45404696 -0.49647334
-6.5884819 0.67311382 -0.71554017
6.2780662 0.2525399 -0.29496631
0.23662467 1.153 -0.86607718
-1.0370001 -0.90013266 0.015460015
-2.7345412 0.4993819 -0.54180837
6.0772729 -0.027408632 -0.015017762
-0.29447955 -1.153 -0.89719504
-2.6129167 -0.022174424 -0.020251969
-4.9636335 0.69744283 -0.65501636
6.3558145 0.29402399 -0.3364504
3.6040251 0.52574724 -0.48332083
0.84299344 1.103054 1.84
